Initial Velocity, Mean = 0, Std = 1
v_x                 v_y                 v_z
-0.702835           -0.320816           -0.249233
0.443208           -0.220067            0.193769
-2.69259           0.0174906           -0.886686
-0.924962           -0.315882             2.43214
-0.251497           -0.142578             2.48001
-0.481841           -0.674544           -0.727079
-0.312723            -2.18687         -0.00795421
-1.1522            -1.40355             -0.4829
-0.521681           -0.333028            0.888429
-0.694136             1.24948           0.0478643
1.03689           -0.592625           -0.714272
0.361646            0.224644           -0.142985
-0.187347           -0.103265            0.734308
-1.82889             2.33105           -0.426052
-1.19698            0.506145            0.131331
1.48453           -0.409296            0.322835
-1.63585            0.133328           -0.582882
0.515223            -1.58954            0.054026
0.47489           -0.237007            -1.15596
-1.7182            -2.09674            -1.00109
1.44656            -1.69092           -0.171542
0.0528898           -0.248172             1.31657
-0.254892             1.21387            0.972636
1.5713            -2.45555            -1.41535
-0.53647          -0.0440039            -1.14128
-0.0334789            -1.06528            0.505301
0.301094            -1.98508            0.327983
-0.846124            0.282731            0.555177
0.741315            0.742136           -0.382038
-0.0363845           -0.927648          -0.0253744
0.489762            -1.94008            0.439875
0.315758            0.889379             1.28413
1.41009          -0.0428187            0.420609
-1.03313          -0.0268914            -1.22042
-0.660099            -1.10506           -0.045323
0.325934           -0.213981            -0.58933
0.372353            -2.37681             1.00824
-0.389299             1.14123              1.0055
1.05017           -0.508493           -0.774883
-0.395631           -0.842667            0.110372
-0.164086             0.75158            0.264372
1.4144            0.413766            0.362031
-1.36397          -0.0268058           -0.161613
-1.22466           -0.933457           -0.962977
1.04749             0.15198            0.524119
1.6977            0.473135           -0.806322
-1.64861              1.6837          -0.0951764
-0.471325           -0.643157             1.64142
1.45369            -1.10819          -0.0777765
-0.24297             1.06563           -0.828336
-1.31257            0.195352            -1.59655
-0.594036          -0.0960582             -0.5446
0.348699           -0.206825           0.0229143
1.198            -1.98566            0.419372
0.380306             1.18022             1.84258
-0.47604             1.83218           -0.509586
1.96345           -0.904824            0.272795
-0.332611            -1.26174            0.961513
-0.173067             -2.3561             1.02154
0.71389            0.360736            0.362658
0.00960535            -1.14749             1.02234
1.00296             1.21979           -0.458068
-1.96314            0.733731            0.873096
0.387458            0.709253            -1.80327
0.4866             0.44968             1.05445
-0.992958            0.153725           -0.131601
0.237329           0.0463137             0.53829
0.537173            -0.20252           -0.877056
-0.296099            0.509184            0.597279
1.23694           -0.222066            0.984819
-0.517762           -0.349691            -1.12802
0.761318            -2.04769           -0.999574
0.415372             1.55215           -0.752637
-1.11375          -0.0326556           -0.103026
0.75636            -1.61271            0.745825
1.2184            0.872249            -1.07782
-0.590019           -0.790551            -1.06226
-0.934517            -1.33014           0.0595882
0.820311           -0.318261             1.41178
-0.733837             -1.7767           -0.988245
0.232011            0.199584          -0.0278413
0.31897            0.791507            -1.60658
-0.738011          0.00915359            0.786532
0.375923           -0.668138             2.12461
-0.174105           -0.742272              1.4189
-0.897629           -0.142765           0.0878257
1.141           -0.310698            0.417271
-0.585927             1.23746          -0.0473577
-2.5081           -0.489358           -0.932933
-0.237132             1.41195           -0.353101
2.26369            0.713951            0.202092
-1.4606            -1.13549           -0.955233
1.17344           -0.731507            0.830378
1.14034             1.49639           -0.124959
0.567806             1.18057            0.392131
-0.358547             -1.0837            0.484315
0.396151            0.759595            0.463932
-1.8045            -1.41014            -1.91488
1.58048            -0.98228            -1.86262
-0.00647259             0.77223            0.770897
0.393112            0.309939             1.36285
-0.236072            -0.60229           -0.149284
0.357299             1.07426            -1.01946
0.606873           -0.970711           0.0192204
1.19777           -0.986271           -0.132481
-0.858403           -0.122946             1.02111
0.426568             0.66577             1.82572
-2.86844           -0.643342           0.0813377
-0.782039            0.403209            0.646778
0.58734             2.02494          -0.0122512
-1.66579           -0.698989             1.44143
0.123311            -1.45712             1.44328
0.151552           -0.227722           -0.787678
-1.38907           -0.969031          -0.0264847
0.858709            -0.29148             1.00782
-0.749207             1.83212             1.32564
0.670571           -0.362654           0.0833156
0.621221            0.648905          0.00321171
-0.409731           -0.516257             0.54666
-0.0824705             1.69288            0.973234
2.11202             1.35795           -0.733808
-0.0969797           0.0139631           -0.223544
-0.0785444            0.530987             1.24479
-0.476385             2.37767           -0.379704
-0.725666           -0.646432           -0.463828
0.408207             1.46555             2.03408
2.21907           -0.285974           -0.643801
1.17601             1.24978           -0.153007
-1.08443            -1.13716            0.585232
-1.10363             0.59612             1.59758
0.105669           -0.551778            0.122925
-0.325936          0.00475828             1.17485
0.732136           -0.113894            -1.45758
-0.511366           -0.993592            0.814921
-0.130428           -0.101895           0.0934693
1.18171            -0.36696           -0.140165
-1.10526            0.743566            -1.00889
-0.034338            0.234652            0.214099
-0.496777           -0.818009             0.49236
-0.0277928            0.537138           -0.260938
-1.14302             1.46234            0.138919
0.124271           -0.111592           0.0408727
-0.0280818            0.168767            -0.43238
-1.10855           -0.280016             0.20773
0.290434             1.92419             1.24803
-0.92112            -1.41818           0.0325714
-2.18015           0.0495762            0.570655
-1.69853            -1.41459             1.12599
0.618086          -0.0138349            -1.41005
0.0292831            0.487195            0.326644
-0.0442701             -1.1599           -0.850003
0.0614826           -0.570962             1.97172
-0.147039            -1.56747            0.693231
0.10642              0.2591            -1.18627
1.33884            0.764569             1.34646
0.0184364            0.750304           -0.021527
0.148926             1.03206           -0.321983
-1.73139           -0.828742           -0.324622
-1.85742           -0.191466             1.01258
1.0131             1.41281           -0.338117
-0.560074           -0.727917            0.935609
0.547561           -0.245792          -0.0157505
2.22035           -0.455989           -0.695018
0.740023           -0.329855            0.208489
0.0830477              1.7396            0.291308
0.348515             1.80502            0.035684
-2.12177           -0.331924              1.6097
-0.376811            -1.06633           -0.561486
0.987442            0.922579            -1.49006
-0.271469            -0.39177            0.841052
0.971177             2.29386           -0.470064
0.413519            0.978948           -0.291614
0.00535695            0.168027           -0.236256
0.686138            0.390266           -0.114632
-0.339183            0.284948            0.198394
0.030407            -1.55539           -0.128786
0.184798            0.213926           -0.171092
0.246294            -0.67155            -2.12884
-0.896704           -0.794083           -0.488841
0.203125            0.743453            0.850771
0.907577           -0.670533            0.348711
-0.9504           -0.623003            0.213372
1.43262           -0.738421            0.838452
-0.321435          -0.0844022             -1.6677
-0.218022           -0.846011            0.683963
-0.196629             0.12396           -0.402738
0.038897             0.73579             0.61277
0.310405           0.0368907            0.458371
-2.28316           -0.191522            0.719444
-0.787805             -1.5409             -1.2727
-0.318575            0.683685            -1.45064
0.407766           -0.476592             0.60248
-0.275533           -0.351254           -0.158529
-0.832355            0.655539           -0.677925
0.0847473            0.787154           -0.801211
-0.76101           -0.476186            -1.15133
0.546333             0.58106             1.79401
0.663149           -0.304436           -0.446506
-0.15111           0.0989896          -0.0856763
0.581381          -0.0524227             1.06952
-0.0832388            0.018158            -1.35388
1.663            -1.32313            0.771312
-0.355961            0.306077             1.72483
0.214838            0.272061           -0.474394
0.495748           -0.620015           0.0570726
-1.43485             1.24479           -0.516376
0.631484            -1.14053            0.848336
-0.0112132            0.802657             1.01329
-0.370057            -1.92309           -0.211391
2.05066            0.501109            -1.03687
1.10551            0.192261           -0.109472
-0.939851            0.758516             0.26294
1.34139            -2.17082           -0.244228
-0.212135            0.568943            0.385395
0.0382269           -0.657827            0.900122
-0.919728            0.388158           -0.863924
1.20859            0.614684            0.136919
-0.330776            0.676614           -0.508078
0.218755             1.12279            0.221797
2.0825            -1.14629           -0.580975
-0.215352              1.4415            -1.16847
-0.692895           -0.508965          -0.0171055
-0.470737           -0.748335             -1.3364
-0.183345            -1.03059            0.155269
0.312038            -1.26954            0.574975
-1.04844            0.579496             0.95471
0.278485           -0.210877           -0.202587
-0.142902            0.997249           -0.133411
-0.0321864           -0.438682             1.29783
-1.52156            -1.60977              1.3856
-1.2594            -0.82056           0.0760246
0.0412479           -0.366409            0.185931
0.173935           -0.852046            0.421637
-1.23795           -0.823588            0.257217
-0.794014             1.23769           -0.183839
-0.171104             -2.5699           -0.832741
0.00996763             2.10508             1.00163
-0.440307             1.45112            0.390478
0.564035            0.468731           -0.575904
0.0829461            0.445326            -1.34972
-0.651566           -0.714892           -0.747893
0.231334             1.51125            -1.47622
-0.278448            0.202139             1.00643
-0.965872            -0.88932            0.169784
-0.796125            0.919298          -0.0295209
2.09593            -0.83508          -0.0302559
1.07772           -0.077114            0.852326
-0.0621545           -0.285645            -1.58174
-0.896056           -0.749357            -2.50139
-1.3617           -0.323573             0.13908
0.434623            0.964985            -1.03088
-0.0480869           -0.966802            0.796889
-0.216574            0.950682             1.08314
-0.482495            -2.59262            0.930031
-0.369569            0.140983            -1.57035
0.694653            -1.00174            0.658827
-0.0145484           -0.161179            -1.02652
-1.1475            0.708454           -0.166262
1.14105            -1.38922             1.08242
-0.298015            0.487794           -0.309696
0.677894           -0.408235            0.212922
1.49945            -0.75086           -0.103541
-0.199052           -0.488917             1.89233
0.0981137           -0.339099           -0.724514
-0.099538             1.20933          -0.0146327
1.1959            0.861021           -0.268824
0.811751            -0.39042            0.689705
0.314649             1.10617             1.23887
-0.400499            0.334056             1.50092
1.53962            0.278908             1.04353
-0.47533            0.743259           -0.674777
-1.69513            -1.93137             1.57835
-0.0236524            0.643678           -0.858057
1.18224             1.91058           -0.759402
-1.59351             0.28943           0.0639552
0.269361              2.3539            0.241751
1.04138           -0.416391            0.900975
-0.813048           -0.921003              1.0271
-0.504078            -1.38127           -0.472995
0.521374           -0.352896           -0.692495
-1.549            0.190942            0.771079
0.207843            -1.50632        3.62202e-005
1.40796            0.277024            0.507298
-0.283582            0.843198            0.965787
-1.21744           -0.567514            0.967653
-0.910854           -0.376344           -0.680497
-1.26421            -1.14409            -1.16571
-1.39921           -0.221214           0.0226112
-1.03851             1.34511             1.05601
0.054907             1.46583             1.08929
0.544002           -0.361855           -0.707504
0.618265          -0.0907199            -0.88962
0.936536             0.68779             0.22841
1.23947             1.06805            0.288202
0.190741            0.609796            0.026983
-0.223041           -0.760555            0.718739
-0.421717           -0.486669          -0.0513227
0.646842           -0.359779          -0.0370515
0.266402            0.151161           -0.359958
0.0528423            0.158455           -0.686823
0.755187            0.863791             1.75534
-0.591186           -0.671765            0.155028
-0.615908            0.868483             0.94069
-0.0408648           -0.128476             1.26097
-0.544656             1.46697           -0.280202
-0.0895806            -1.39686            -2.60511
-0.369654            -2.06451          -0.0882351
-0.0107328           -0.256895             1.00327
-0.486866           -0.895957            0.847431
0.729835            -1.56752           0.0234516
0.822886             1.26853            0.327497
-1.87452             1.33721           -0.690495
0.893147          -0.0945737           -0.819988
-0.225354            0.523579           -0.481538
-1.69058           -0.162921            -1.26044
0.387334            -1.22586            0.994741
1.92202           -0.385851           -0.697475
0.803268           -0.255722             1.02819
0.358631            0.526011             1.07372
1.45666          -0.0976904           -0.808931
-0.708386            -1.74128            0.953306
-1.2334           -0.661503             1.96722
0.716274             1.48719            0.702495
-0.109588            0.999795             1.06273
-1.28515            -2.09876          -0.0205327
-0.422201           -0.559534            0.965648
1.13794            0.216337            -1.09139
-1.11207           -0.992034             0.19061
-0.076176            0.403312           -0.377046
-0.0802161           -0.373201           -0.829728
1.79721             1.09337             1.20446
-0.502661            0.920049            -1.40237
-1.28932            0.788532           -0.979334
-0.540047            0.883768            0.433526
-0.570757            -1.04551            0.196005
0.515992            0.850054            0.207834
-0.891943            0.436147            0.201645
0.727714             1.82139           -0.407525
-0.836304            0.516049           -0.910387
0.339576           -0.040639            0.497578
0.658886             1.79213            0.283822
-0.18086            0.886918           -0.185996
-0.523898           -0.391608           -0.287583
-0.900336           -0.620079            0.763608
-0.801465            0.168371            -1.08611
-0.311644            0.724601             1.95826
-1.42663             1.08275            0.525259
0.181848             1.98234             0.18452
-0.267012            -1.25623             -1.2888
0.51401             1.04635           -0.797105
-0.806751           -0.518486            0.254551
0.58574           -0.313572            -1.62505
-0.62762             1.33506            0.168624
-0.229618            0.499652            0.684386
-0.388011            0.266985            -0.31869
-1.14263            -1.47076            0.444458
-0.603753            -1.21487           -0.698027
-1.70345           -0.339744            -0.24353
0.415023           -0.277387            0.752944
-0.441501            0.735309           0.0279707
-0.557362            0.107196           0.0165007
-0.987978           -0.560673            0.627896
0.96786           0.0983632            -0.45392
-0.194399            0.445514            0.400667
-0.254901            0.787628           -0.717621
-1.1135          0.00114925             2.08783
-0.178678            -2.37262           -0.635046
-1.19448            0.407052           -0.694141
-2.13494             1.92199            -1.53759
2.88995            0.110567              1.0223
0.749464            0.749874           -0.976272
0.502939            -1.02072            -1.36907
-1.7584             2.97564            0.632972
0.491486           -0.603227            -1.28543
1.99994            -1.25611            0.152496
-1.61223          -0.0790978             1.51291
0.426965            0.320968             0.17991
-0.468615            -1.20838           -0.424179
-1.44782           -0.284541          -0.0711273
1.0491           -0.471086           -0.255018
-0.358932            -0.47703            0.321809
-0.511185             1.46643            0.181335
-0.0286631             1.35967             -1.1795
-1.55309           -0.509162           -0.741543
-0.13294            0.102795             1.61942
-0.309718             0.58785           -0.531122
-0.504784            -1.13713            -1.21932
-0.253995            0.250132            -1.29564
0.27484           -0.220656           -0.909662
0.913777             1.91491           -0.308359
0.501058            0.566242            -1.09345
-1.16062           -0.354184           -0.492171
-1.66631            0.442002           -0.435988
0.82565           -0.422322            0.621083
-0.997007            -1.06945            -1.01664
-0.529606           -0.283875           -0.337916
-0.056631             1.36518             1.71557
-1.19135             -1.3181           -0.501944
1.40827            -1.33707            -1.69886
0.622759             1.36524             2.07341
-0.504018            -1.56393             1.03668
-0.790093             1.83602            0.689998
-2.03547              1.5794            0.393562
-0.515323            0.879981           -0.513819
-1.14295           -0.786566            0.384432
-0.482003            0.242161            0.573172
0.756463           -0.998604             -1.0553
-0.604113             1.54237            0.153374
-1.34503             1.54068            -1.40679
-0.576047            0.693987           -0.549092
0.818845             1.36557           -0.259481
-0.128704            -0.61149           -0.926037
0.313191            -2.49515             3.22956
-1.54214            -1.05664             1.07274
0.989993           -0.730087            0.658664
0.0305053            0.608575            -1.32324
-0.589087             1.77451            0.835864
1.34746             2.31987           -0.978322
-1.0002            -1.75433           -0.459712
-1.7212           -0.379575           0.0154438
1.89929           -0.283141           -0.323239
-1.00516            0.735184           -0.937163
0.462182           -0.450635           -0.439006
-0.400788           -0.302817               0.026
-1.32477            -1.41243            0.606335
-0.10807             1.14161           -0.826194
-0.124904          -0.0310941            0.356026
-0.0720482           -0.687104             1.22182
0.374647            0.918386            0.943129
0.23686            0.799763            0.808805
0.896812            0.621753             1.28149
0.078623             1.60022             1.07035
0.195793           -0.140796           -0.397648
0.939144             1.74179           -0.747667
0.912011           -0.212822            -1.29449
-0.645488          -0.0132965            -1.34293
-0.439159            0.442879            -0.96632
-1.15295            0.899769             1.31002
0.795603            0.433303           -0.605398
-0.681203             1.44134            0.779053
-1.62189             1.09819             1.02775
0.190619              1.8834            -2.08853
-0.311725            -1.11805           -0.590741
0.0510542           -0.847726             1.36492
-1.37239             1.13071            -2.45302
-0.715971            -1.50158            0.344729
0.678246          -0.0304754           0.0713655
0.309916            0.967367           -0.802242
0.278481           -0.748706            0.616759
-0.384587            0.689807            0.138186
1.9905            0.871219           -0.384168
-0.102033           -0.328234           -0.146938
-0.447245            0.803135           -0.832052
-1.50532            0.172367          0.00822357
2.19831           -0.249064            -1.87821
0.173553             -1.7905           -0.119965
0.216641            -1.13886            0.551969
-0.238279            0.958439           -0.985301
1.1412           -0.267358            -1.29031
1.2831           -0.645845            -2.41551
0.995797            0.823718          -0.0852906
0.290713             2.05239             1.04721
0.0216706           -0.683471             1.04844
0.912731            0.209979             1.71839
1.0462            0.773477            -1.58125
0.518637             0.42517            -1.60799
2.11022           -0.381279            -1.06947
0.633476            0.354497           -0.914862
-0.809605           -0.804371           -0.585325
-0.0989148            -1.37694            0.762981
0.181276             0.90542            0.256197
-0.734638            -2.04027             1.44974
0.0483006           -0.525852           -0.478953
0.887153          -0.0343551           -0.647742
-1.2208            0.835553           -0.853429
1.45144             1.06971            0.569846
-1.79408           -0.066578             1.22237
-1.01686           -0.918959           -0.467717
-1.06014           0.0435957            -1.01156
0.261997           0.0890847             1.21145
1.47166            -1.67981           0.0319156
0.612065            0.749137            0.993904
-0.00721852           -0.400117            0.514971
0.766084            -1.40129          -0.0935656
-0.114687           -0.302289           -0.105168
-0.142313             -1.1676           -0.112608
1.57661           -0.472025           -0.463088
-0.0292382           -0.142553            -2.23729
-0.158434            -1.19804             1.75564
0.148448            -1.97752            0.840425
-0.358657            0.844267            -1.27546
1.18037            -0.41034            0.768438
0.125899           -0.695782           -0.541592
0.743528            -2.01609            0.544811
-0.516437             1.09943             0.87004
-0.258226             2.38405            -1.26227
0.510794             1.32849            -0.66606
0.799455           -0.207336            0.413946
0.233266            0.757575            -1.97096
-0.205625           0.0844793             1.28891
0.191638            0.464555           -0.466785
-1.04808            -1.80137          -0.0697815
0.00358906            -1.20225           -0.187913
2.56514              -1.051             1.05024
0.456791           -0.682628          -0.0830917
0.47215            -1.82333            -1.18018
-1.02873            -2.08286             1.02247
-1.74558            0.310496            0.321688
3.3326            0.899938           -0.236116
0.198773            0.354706            0.737013
1.07346             0.27291            0.351653
0.223665            -0.17089             1.12257
1.21531            0.590638          -0.0511088
1.08066            0.959524            -1.41004
-1.62189           -0.158623            0.645942
-0.269215             1.03176            -0.36902
-2.70699           -0.967547            -1.86548
-0.714801            -0.31236           -0.492867
-0.177322             1.00952          0.00824743
1.36838             1.16427            0.483176
0.929257             1.54144             0.58653
-1.41539            0.281618            0.656299
-0.749858           -0.720479           -0.948037
-0.407607            0.389248           -0.272919
0.707284           -0.191888            0.224957
1.24362           -0.182702           -0.861314
0.204777            0.333742           -0.877318
0.80908           -0.876377             1.43826
-0.10613           -0.651017             1.75232
-0.0606551            -1.22547          -0.0417123
0.138541            0.235813             -1.0745
0.893553           -0.263726            -1.28064
1.08406            0.623758            -1.42375
-0.814984            0.332114           -0.636323
-0.018387           -0.356715            -1.58281
-0.0387531           -0.854668            0.108388
-0.0322039            0.588013            0.528869
-0.816238           -0.367053             2.51963
2.13406            0.955101           -0.272448
1.29372            0.577926            0.300919
0.916597            0.720809            0.628716
1.62451            0.110123            -1.79402
-0.939576            0.360671             1.12758
-0.0202635              1.9618           -0.279596
-0.5328            -1.89978            0.485822
1.77916             1.37923          -0.0315721
1.6152            0.219659             1.28539
-0.738799            -0.80551           -0.527483
0.33444            0.032602             -1.0429
-1.67283           -0.509646           -0.045472
0.159379            -1.96895            -1.52809
1.24119          -0.0668723             2.01233
0.651303             1.01073            -1.04058
-0.29967           -0.632317            0.699634
0.592678            0.342465           -0.293983
-0.129821           0.0237246           -0.185557
-0.399028            0.470544             1.05882
1.30654            -1.21488             2.21984
-0.0859454           -0.375604           0.0576119
-0.25432           0.0593782            0.251086
1.6189            0.425002             1.58482
2.33986           -0.974425            0.210387
0.0455269             1.79606           -0.871132
-0.266788             1.75712           -0.263235
-0.702928           -0.783296           -0.487817
-0.920943           0.0745294            -0.68595
-1.50377             1.26654             2.13466
1.87342           -0.168216            0.418829
-0.958225           -0.334951               1.919
0.714612           -0.314423            0.436079
-0.654071             1.67728           -0.581826
0.600929            0.663482            0.632708
2.25756             2.46733            0.136345
1.0828           -0.698249           -0.446708
-0.660105            -0.13939            0.673151
1.5819             1.39776           -0.135502
-0.253285             -1.7365            -1.91836
-1.75712            0.329581            0.322219
-0.52933            -0.52792            0.554519
-0.712624           -0.778555           -0.695287
-1.3234             1.03682            0.212365
0.493571           -0.765984             1.99537
-1.49408            -1.99481           -0.845654
-0.578419            -1.82585            0.397387
-1.22741           -0.348937            -1.36032
0.61015           -0.877392            0.602247
-0.681719            0.572704             1.01297
-1.3575             1.26887           0.0850425
-0.129981            0.210851            0.841042
-0.120577          -0.0830584            0.493158
1.16168            0.664183            -1.15243
0.20418            -1.83989            0.697273
-2.27625              1.1241              1.2144
0.150054             0.75907            0.515934
1.1131            0.321661             1.86598
1.05629           0.0261802            -2.65951
0.756744            -1.06101           0.0485816
-0.461094           0.0918879            0.440231
-0.870238            -1.83631             1.48909
0.515357           -0.896629            -2.12714
1.37914             0.55776             1.43365
0.605543           -0.531736            -1.17039
-0.197802            0.615792           -0.157801
-0.681114             -1.4126           -0.460535
-0.774281          -0.0149614           -0.142668
-0.771739            0.199902             1.12093
-1.25161            -1.31954           -0.260649
1.19177            0.449865            0.128854
0.687835            0.863205            0.445175
0.163489            0.722149            0.488963
-0.42108           -0.467851           -0.373574
0.465072           -0.520433            0.423586
0.138826             1.67967           -0.154502
-0.46276            -2.25708           -0.299743
-0.0793081             1.51735            -3.02867
1.2273           0.0700169           -0.265437
-1.59194           -0.862378            -1.32837
0.389128            0.266719            0.836001
0.558073            -1.95257            0.173154
-0.638193             0.99791           -0.747111
0.05609            -1.68728            0.272562
-0.794091            -1.00729            0.584953
1.50286           -0.416317            -0.40847
-0.194337            -1.84798           -0.238446
0.0753119            0.945652           -0.144049
-1.17981            -0.23715             1.59876
0.0344646            -1.36642           -0.403684
-0.58119            0.362942             0.87479
1.00152           -0.922725             1.75337
-0.456455           -0.680946            -1.13274
0.533762            -1.45404           -0.235807
-0.746618           -0.432792          -0.0242308
-0.369951           -0.827793           -0.528748
0.761245             0.58702            0.312013
-2.08284            -1.56338           -0.497145
-3.08883           -0.317726             1.71241
0.694834            0.416288           0.0705227
0.607133            0.592236             0.46268
-0.167411            -1.02434            0.326797
-0.130089            -1.88593           0.0800308
0.138445             -1.6476           -0.362849
1.79154           -0.515666            -1.04654
-0.917084            0.609166           -0.882917
1.0042           -0.210395            -1.16707
1.5299           -0.506329           -0.760276
0.707693             1.56656           -0.578553
-1.04815           0.0155061            -1.24095
0.540005            0.853683            -2.76405
1.4513            0.675452            0.710007
0.122935           -0.512249            0.748412
-1.09783            0.819762            0.932536
-0.44012           -0.244135            0.435329
-1.20219            -0.28719             1.02534
1.13857            -1.69787            0.193826
-0.548406            0.371901           -0.408821
-0.551191            0.152472           0.0484977
-2.16661           -0.760954            0.917224
1.58118            0.622445            -1.31248
-1.25153           -0.859009            -2.60108
-0.994289           -0.586566             1.60515
0.587795           -0.741299           -0.620584
1.26109            -1.72093             1.15581
0.999582             -1.5741             1.24429
-0.746015          -0.0870771           0.0502039
0.309698            0.032477            -1.57049
0.653567            -1.39725            0.727488
1.56945           -0.233873            0.442221
0.50313             2.40321             1.72116
-1.02775          -0.0611471           -0.479207
-0.137251           -0.240361          -0.0203771
-0.18279           -0.761718           -0.554309
0.0515045            -1.68424             1.28083
-0.976618             1.05942            0.105198
0.816944            0.115291            0.517696
-1.76968          -0.0357161             1.16037
0.0141011            0.938339           -0.677878
0.551586            0.655634            0.213092
0.06147           -0.919375            0.405643
-0.266103           -0.567583            -1.57171
-0.810293           -0.228421           -0.776726
-0.987451            0.822449             1.67183
1.00372            -2.00478            -1.73034
-0.670791            0.735452            0.444113
-0.257069           -0.231431             1.27137
-0.673637           -0.102703          -0.0673194
-0.950031            0.912085          -0.0524951
-0.0772279             -1.4716            0.548958
0.504936            0.630506            0.733909
0.52343            0.653189            0.437546
-0.0415738           -0.731933           -0.990728
-0.238622           -0.650729             1.12051
-0.890939           -0.227434           -0.347057
1.38097             0.21998            0.240386
0.349607           -0.381888            -1.20523
-0.937308             1.02308           -0.218328
-1.37423            0.479017            -1.25708
-2.23153            0.637646           -0.107531
0.496304            0.033771           -0.485667
1.34008           -0.388824           -0.602702
-1.4811           -0.605225           0.0724118
0.517093           -0.152161             1.54224
-0.974538           -0.112625             1.23841
-0.713722           -0.828147            0.425971
-1.09405           -0.810502           -0.159413
-1.2215             0.37402              1.1284
-0.759693          -0.0180156           -0.916371
-1.33135             1.10039           -0.921803
-1.52522           -0.445847           -0.380489
-0.867696            0.100582          -0.0768198
-0.720816            0.378618            0.312869
-0.0067484            0.479283            -1.10249
0.231694             1.95923           -0.429871
-0.294517           -0.757214           -0.717985
-0.106497             1.66498           -0.289968
-0.41067            0.603757             1.21933
0.778582            -0.44368            0.883128
-1.08797             1.00077            0.637428
0.718574             1.50777             2.25886
-0.104344           -0.283652            -2.03932
0.936676              0.4481            0.762665
-0.134896             1.13933            0.157624
-0.748011           -0.231477            -3.06549
-1.25905           -0.907914           -0.449101
1.6607           -0.704951           -0.293068
2.9111            0.471335            0.446444
0.226748            -1.23485           -0.447224
-1.72655             1.68909            0.630171
0.37215            0.209576           -0.648897
-1.04079            -1.86469            -0.36642
-1.32409             2.09194           -0.245135
0.755866            0.753494            -0.19864
0.0159016           -0.361039            0.612611
-0.45265            0.861798             1.17841
0.794809            -1.52005             1.60142
-0.54713            0.538638             1.10218
-1.30347            -2.17953             1.28979
-0.42922              2.0022            0.668159
-0.333993             1.34784            0.283732
-0.380461          -0.0851137           -0.637656
-0.0305273            -1.41034           -0.660334
-1.34479               1.568           -0.449923
-0.165339            -2.16233           -0.468487
-0.784242            0.671203            -1.12655
1.26756           -0.237379          -0.0474173
1.99131           -0.599269             -2.3969
1.42351            0.527361            0.429242
0.617051            0.493067           -0.444738
0.479115            0.303527           -0.306169
0.522986             1.76423             -1.0038
-0.816325            -1.03784           -0.382105
-1.34547           -0.539434            0.725024
0.582962             -1.0052           -0.177668
-0.328641         -0.00582741            0.406073
-0.161836            0.827747            -1.52088
1.04349           0.0403711            -1.86523
0.926865            0.494345           -0.206626
-0.185999             1.22285            -1.36468
0.885353           -0.652751            -1.74633
0.139716              0.9675            -1.29761
1.5306           0.0481118           -0.581891
-0.0952281            0.570828            -0.29116
0.414787            -2.20752            -2.51048
0.798807             -1.7537           -0.315477
0.452445            0.285447           -0.591606
-1.08787           -0.907898           -0.298988
0.243842           -0.857343            0.335705
0.75253           -0.378729           -0.769367
0.34026             0.98759           -0.438465
1.2317            0.148932            0.657286
-0.696984           -0.158692           -0.548145
0.255421           -0.010207          -0.0985527
-0.371561           -0.422433           0.0250202
-0.128899            0.223234          -0.0477505
-0.30602            -1.54588            0.104795
-1.27793            0.872302           0.0790056
-0.285675            -0.45017            0.806022
-1.91656           0.0412957           -0.272864
-1.50864           -0.772603              1.2575
-0.927038           -0.426262           -0.500388
0.0172936            0.287285           -0.406422
-0.601372           -0.352864             1.33516
0.879066           0.0243698           -0.486175
-0.948072             1.78673            0.449835
-0.342523           -0.255094            -2.43251
0.496112            -1.59165           -0.102072
-0.65358            0.359598             1.43994
-0.388466           -0.314611             -0.3841
-0.351711           -0.153107             1.51646
-0.0320107             1.27063            -1.01234
-0.03453            0.425732              1.4241
-1.55299             1.52486           -0.109915
1.23624             1.43292            0.499324
-0.49816            0.872377            0.255543
0.616732            0.333949           -0.568127
-1.45521            0.773312           -0.508898
0.816131             1.76168             1.19142
0.168054           -0.333963             2.20769
-1.36672          -0.0865127           -0.021805
-1.95579           -0.725661            -0.58884
-0.360139            0.666814            -1.96403
-0.599182            -1.19082           -0.341139
0.260177             1.14234              2.3588
-0.770759            0.316067           -0.609861
0.781768           -0.219136            0.682251
0.140576             1.89976            -1.17662
-1.43831            0.814194          -0.0984767
-0.105233            0.415811            -2.85675
-0.791906           -0.244756          -0.0820438
1.61852           0.0272273             1.68474
0.498275           -0.606276            0.307859
-0.269795          -0.0849373            -1.11055
0.213181            0.510374           -0.300676
1.012           0.0929773           -0.444283
-0.0994752          -0.0591347             1.95995
1.56925            0.360846           -0.753017
-0.854781             1.26446          0.00411826
3.01738           -0.685678           -0.289671
0.29295            -2.52658           -0.955633
1.57592             0.56087           -0.948278
0.512615           -0.838497           -0.231422
-1.27647            0.697641            0.078097
0.219236           -0.821283            -1.42297
0.153315             0.70689            0.611267
-0.243893             2.01325            0.996143
0.250464            -1.46967             1.72095
0.66113            0.826557             1.30347
-2.72899            -1.45829           -0.727253
-0.458947           0.0326725           -0.295931
-2.87732           -0.572048          -0.0734734
-0.124427            -2.04811           -0.993791
-1.74986            -1.03567          0.00835171
-1.25738             0.37081            0.190466
0.044988           -0.700201            0.249186
0.614657             1.10047           -0.659036
0.985439            0.492434             1.51001
0.573681            -1.22017           -0.530594
0.69531          -0.0442488            -1.11313
-0.255001           -0.654279            0.583014
0.321244            0.999042           -0.477731
-1.54506            0.574486             0.49587
2.50428           0.0284437            0.666403
0.40106            -1.55271            -1.13293
-1.68186          -0.0938936            -1.41592
0.481605           -0.187842         -0.00293462
1.37682            0.714208            0.259726
1.25859            0.740013            -1.67198
1.59028              -1.027            -1.15577
-1.20178            0.538919           -0.681603
-0.654861            -0.67139            -1.30716
1.94566            -1.53342           -0.421345
1.74831           -0.613587           -0.511302
-0.929577            -1.21516            0.589418
-0.648196            -1.38387           -0.295182
-1.95868             1.91592             2.26303
-1.52722           -0.470482              -1.125
-0.588835            -1.07925            -2.58759
-0.0407438             2.38353            0.198501
-0.164406           -0.430298             0.21443
-0.923864            0.325078             2.21782
-0.225561           0.0275227            0.644277
-0.310129           -0.886799             1.51544
0.273118             1.22046            0.573712
1.13365            0.915534            -1.09546
0.365353            0.128442            0.182065
0.324217             1.44512            0.525572
-0.0277622             1.29602            -1.09956
1.92178            0.243009            -2.42819
1.00892          -0.0542332            -1.17449
1.44468            0.244289             1.62057
-0.102292           -0.639731           -0.455907
-0.703717            0.160172           -0.162067
0.418048           -0.477181           -0.687215
0.585567             -0.9954             1.67893
0.795453             1.02674           -0.697316
1.34549           -0.503011            0.810761
-0.63328            0.157958             1.25931
1.28818            -1.62809           -0.368464
0.227122            0.703691            0.413469
0.950005            -2.22332            -1.07768
1.34116            0.508209           -0.550612
-0.291814            0.736274              1.4749
1.33876             -1.3245              0.3903
-0.940889           -0.912039            -1.63225
-1.75764           -0.645685             1.12028
-0.0371863            0.600585            0.753644
0.389787           -0.122516          -0.0932151
-0.458619             1.08069           -0.786846
-0.401695            0.301442            0.865709
0.402827             1.70334           -0.758355
0.651447           -0.129259            -1.31638
0.0269915           -0.530291           -0.123964
0.811918           -0.465008             1.26857
-1.82627            0.203668           -0.552263
-0.0944874            0.381716            0.486392
0.563046           -0.967385          -0.0981042
0.794919             1.15967             1.13128
0.217368             1.24485            0.723487
2.06772              1.2172            0.502604
0.54941            -1.25763           -0.983674
-0.396402            -1.19995           -0.260056
-0.113034           -0.302499           -0.316589
2.50749             1.16227           -0.529181
1.01295           0.0114989           -0.168947
0.211991            0.812428            0.598734
-1.18377            0.244774            -1.63283
0.474369            -1.17896            -1.21959
0.958496           -0.888118           -0.678458
-0.218393            0.671742           -0.256356
0.396115           0.0787427           -0.378891
1.48987            0.267727            0.606658
-0.0483858           -0.235789            0.819692
0.853663             1.18149           -0.502947
-0.255031            -1.45512            -1.07487
-0.254894            0.618273             1.46309
-0.154325            0.946756           -0.468627
0.023257           -0.801438          -0.0031536
1.44287           -0.124474           -0.548392
-0.306593           0.0281944            0.849693
0.234128           -0.275613           -0.144705
-0.698337            -1.08506            0.977197
-0.730013            -1.38936             1.78448
2.46669            0.358377            -1.14923
-0.620809            0.507846             0.76013
1.32255            -1.15378           -0.498691
0.38032             -1.5102            0.168096
0.784077           -0.967984            0.304361
-1.60022           0.0191434           0.0893289
-0.459069            -1.54609            0.672656
0.516286             1.49809            0.779874
0.514258            0.545561           -0.842464
0.239098            -1.38281            0.446396
0.509919           -0.474183          -0.0630623
-2.3181           -0.799669            -1.09062
0.526085           -0.290907           -0.143694
-1.66638            0.905472           -0.776021
0.852326           -0.559792            0.417905
-1.32678            0.322349            0.368825
-1.51626             1.03872            -1.10003
-1.3089            0.869768            0.860823
0.641339            -1.56138           -0.691313
0.458181           -0.339253             1.36074
0.196115           0.0495114           -0.192928
-1.14373            -2.17035           -0.129355
-0.792184            -1.36802             1.92917
0.00475969            -1.46999            -1.84368
-1.69609            0.977525              1.1137
-1.07125            0.582712            0.302511
-0.0989601            0.409088           -0.539681
-1.48898           0.0874528           -0.845831
-0.907356            0.179581             1.45449
0.143565           -0.792447           -0.283667
1.26454            0.633485             -1.4526
0.205406            0.194823             1.29604
-0.739215             1.30711            0.471688
-0.835297            0.685031            0.855849
0.0973191           -0.408093            0.319106
-1.7907            0.544959            0.919257
0.155001           -0.303902            -1.02117
1.24926            0.816155           -0.266614
0.0937571           -0.713755           -0.235513
-1.06474             1.98567            -1.25199
-1.56257             1.89586             1.41085
-1.12148          -0.0181473            0.652176
0.952246           -0.950405           -0.193427
-0.252464            -0.58106           0.0748596
0.667425             1.50115            -1.42761
0.720632           -0.297775            -1.67271
1.07129            0.970577             1.81738
-0.911693            0.818087            -1.11284
1.58633             0.28391            -0.77929
0.17208             1.48334            0.802262
-0.949146            0.681785             1.42532
2.00783             1.70103             0.10878
0.158556             1.61254           -0.272183
